ply
format ascii 1.0
comment Created by Open3D
element vertex 1892
property double x
property double y
property double z
end_header
1.99376 4.74465 3.01214
1.99568 4.7407 2.81197
1.99612 4.73434 2.42006
3.38446 3.69162 4.05655
3.67504 3.71171 3.41382
3.53916 3.47825 3.40648
-4.34349 2.67814 0.226986
3.46168 3.30967 3.6238
0.994157 4.83639 4.01616
3.53135 3.29502 3.41031
3.18887 3.69533 4.05615
2.41141 4.91751 2.81392
3.18772 3.49673 4.05611
2.98772 3.49744 4.05452
3.1875 3.29793 4.05722
-0.813286 -3.29991 4.07936
3.59418 3.10134 3.8465
3.55819 2.89954 4.02677
-4.35708 1.52647 0.423926
3.38839 2.89661 4.06361
3.55534 2.69814 4.02839
-4.34119 1.69936 0.0562049
3.38825 2.69658 4.06376
-4.35542 1.49756 0.814079
-0.813774 2.30115 0.00538026
3.47156 2.89783 3.61574
3.53221 2.69725 3.59017
3.52236 2.9086 3.40877
3.53413 2.68664 3.40468
-4.3556 1.69556 0.812628
3.46986 2.68258 3.20996
3.18833 3.0974 4.06025
3.2406 -2.2042 1.6951
2.98832 3.09764 4.05916
3.18795 2.89706 4.06322
3.53977 3.48046 3.21168
3.54427 3.48746 3.01245
3.54879 3.49962 2.81153
3.53584 3.30369 3.21558
3.5444 3.31242 3.0152
3.55579 3.3231 2.81332
3.46937 3.57857 2.6149
3.55891 3.50523 2.40968
-1.41011 4.50776 0.0342554
3.47308 3.58489 2.41672
3.47378 3.6229 2.40766
3.5639 3.50898 2.21168
3.4793 3.58989 2.23235
3.47856 3.17196 2.60991
3.47497 3.1713 2.41595
3.48882 2.88651 2.77353
3.52323 2.906 3.21567
1.39178 -3.09763 -0.00619402
3.51812 2.90501 3.01447
3.53129 2.68615 3.2136
3.53205 2.68338 3.01259
3.51363 2.91141 2.81276
3.48863 2.89232 2.60146
3.52293 3.07972 2.41098
-0.0100533 -0.902965 -0.00181256
3.48729 2.90782 2.38939
3.48665 2.91616 2.21364
0.966882 5.03132 3.55262
3.53769 2.7072 2.41236
-1.01277 3.89637 0.0109026
3.50819 2.92757 2.41903
-0.682289 -0.500776 3.99566
3.50842 2.91383 2.22625
3.54602 2.72015 2.21078
3.44987 2.6956 2.20751
2.78804 3.69671 4.0549
2.41348 3.69348 4.0531
2.30888 3.69401 3.90013
2.3083 3.49596 3.89979
2.78752 3.49571 4.05451
2.30816 3.29778 3.8998
2.1981 3.69388 3.97955
2.17644 3.69431 3.89047
2.07508 3.68964 3.9029
2.19671 3.49334 3.97682
0.795408 1.29721 4.07658
2.1687 3.49054 3.88908
2.16733 3.30459 3.88738
2.78763 3.09773 4.05922
2.58856 2.89871 4.06252
0.794785 0.897886 4.07357
2.17435 3.10734 3.88897
3.4865 3.0319 3.2422
-4.35601 1.30105 0.826346
-0.735069 0.942493 0.816064
1.97616 3.11245 4.06114
2.19132 2.90372 3.98219
2.18517 2.9042 3.88965
-2.60852 -2.6968 0.00953431
1.59109 4.6972 4.08011
1.79101 4.49512 4.07557
1.59214 4.4951 4.07781
1.78774 4.75196 3.61035
1.7941 4.767 3.21267
1.59008 4.75136 3.61186
1.60094 4.77648 3.41881
1.39237 4.49761 4.07984
1.19135 4.49678 4.08145
3.50263 0.0985376 0.433037
1.38289 4.76324 3.40675
1.79155 4.2947 4.07164
1.79148 4.09411 4.06752
0.788932 1.10285 0.784925
1.59192 4.29487 4.07344
1.39177 4.2967 4.0756
-2.77531 4.84364 0.904547
-3.77128 4.33652 0.76032
0.309886 3.53148 0.783555
1.59248 4.09477 4.06872
1.39191 4.09447 4.0711
1.79203 3.89351 4.06399
-0.60942 2.30051 0.00502912
1.39407 3.89457 4.06794
1.19241 4.29531 4.07764
1.19238 4.09679 4.07448
1.58021 4.77287 3.22761
1.18721 -3.09963 4.0753
1.56034 4.76286 3.01035
1.37319 4.75517 3.21583
0.793412 4.09528 -0.00288827
3.5677 0.03041 0.03839
1.37523 4.7558 3.00781
1.56402 4.76122 2.81138
-4.24228 4.05745 0.60224
1.37653 4.75362 2.80861
1.78717 4.76655 2.41645
1.56869 4.76038 2.60772
1.56799 4.76291 2.4076
1.38084 4.75013 2.61019
3.68421 4.49337 2.21172
1.24831 4.74031 2.61061
3.68429 4.49144 2.61128
1.24405 4.73487 2.21224
1.79401 3.6917 4.06164
1.59472 3.69392 4.06384
1.79938 3.48844 4.06009
1.8085 3.29959 4.06058
1.59684 3.49435 4.06155
-0.607363 1.88878 0.0162169
1.39568 3.49584 4.06454
1.7982 3.10693 4.06539
-1.00935 -3.3806 3.7541
1.59647 3.10089 4.06862
1.39597 3.29786 4.06747
2.40617 4.91685 3.01187
1.39541 3.09978 4.0724
3.69624 3.71509 3.99736
1.79372 2.90334 4.06922
1.59447 2.90116 4.07224
1.3939 2.90041 4.07603
1.19403 3.09956 4.07462
3.33452 3.9855 0.00838571
0.993158 3.09769 4.07602
-0.812377 2.49907 4.09459
0.992848 2.8988 4.07816
3.55395 2.49732 4.02851
-4.37502 -1.2972 0.615587
-0.00568264 4.09691 4.09461
0.398525 2.28658 0.843675
3.38838 2.49672 4.06247
-0.00392143 3.89532 4.09332
3.38809 2.29633 4.06104
3.52899 2.49957 3.58796
3.51521 2.48419 3.40354
3.48886 2.47741 3.3522
3.48709 2.36523 3.32696
3.73151 2.09469 3.21073
3.46953 2.29651 3.6153
3.18872 2.6976 4.06396
-3.21229 -2.67226 0.21937
3.54826 2.0963 4.02998
-3.19656 -2.67405 0.320893
3.58281 2.09518 3.84084
3.53897 3.49516 3.58786
3.38625 2.09687 4.05981
3.58132 1.69564 4.04167
3.66562 1.69879 3.84493
0.997445 4.84524 3.84714
3.53375 3.29947 3.59208
3.38637 1.89591 4.05932
3.38535 1.69693 4.05985
3.72159 2.07838 3.53337
-3.1949 -2.67775 0.04166
3.52646 2.09505 3.40938
3.5987 1.89537 3.41148
3.55671 3.50407 4.0217
3.46851 2.09674 3.61361
3.55845 1.88122 3.58311
0.982334 4.80746 3.37932
3.56077 3.29774 4.02311
3.46827 1.89841 3.61333
3.57604 1.69683 3.58696
3.46667 1.69724 3.61186
3.65396 1.69547 3.41123
3.18711 2.09482 4.06019
3.18304 1.69542 4.06087
0.382266 2.32467 0.0095279
3.4878 2.49124 3.22368
-0.428439 3.08887 0.0218829
3.48797 2.50146 3.01318
3.51716 2.49019 3.01827
3.48372 2.3705 3.20782
-0.409079 2.90292 0.00617341
3.48025 2.37427 3.01575
-4.05199 3.64204 0.202461
3.48879 2.50735 2.83268
3.51579 2.49267 2.81186
3.72905 2.04399 3.01768
-0.374833 3.19373 0.3386
-0.692822 -2.89993 3.98728
3.48982 2.46642 2.59853
2.58706 3.49583 4.05477
3.47566 2.37627 2.60995
3.50907 2.50566 2.41201
-0.637558 -2.89753 3.75811
3.48826 2.46045 2.38512
3.47433 2.37271 2.40857
3.5101 2.5269 2.21792
3.48651 2.45089 2.19644
3.47039 2.37136 2.21098
3.51893 2.11716 3.01442
1.02014 4.82087 3.00896
3.4796 1.91279 3.22783
3.51925 2.11718 2.8121
3.48919 2.09047 2.60054
1.00202 4.82546 2.80834
3.47096 1.91957 3.00865
0.978954 4.82346 2.6155
3.46064 1.92367 2.80975
-0.913767 1.19163 0.231767
3.6278 1.88091 3.01164
3.65699 1.69308 3.01799
3.59185 1.90642 2.81433
3.72764 2.09465 2.6167
3.51696 2.11551 2.6128
3.71962 2.04088 2.43158
3.71416 2.02991 2.20481
3.48807 2.08604 2.39623
0.967546 4.83406 2.21232
3.456 1.93624 2.41116
3.59556 1.90258 2.61384
3.65996 1.68489 2.41331
2.59072 2.49688 4.0652
2.40643 2.6991 4.06384
-2.41205 4.52803 0.0468712
2.40389 2.49796 4.06441
2.30714 2.70174 3.90043
0.392261 3.09865 4.08357
2.30661 2.49967 3.90061
2.79007 2.29566 4.06289
2.79071 2.0937 4.06232
2.59128 2.29634 4.065
2.1875 2.70108 3.98365
0.592905 4.71825 0.81065
2.07279 2.70196 3.90093
2.07234 2.49744 3.9007
0.592734 4.65298 0.613763
1.97429 2.70182 4.06754
2.17804 2.29692 3.98534
2.19933 2.29967 3.88895
2.07221 2.29606 3.90041
1.1895 -2.50131 -0.00444295
1.97315 2.50024 4.06928
1.9712 2.29961 4.06987
1.79179 2.29857 4.07573
2.39933 2.09594 4.06515
2.30615 2.12301 3.90135
-0.231517 -1.70402 0.118167
2.59578 1.89346 4.06506
-1.40286 2.29095 0.00429232
2.39744 1.89599 4.06478
2.19796 2.0917 3.88967
-0.419069 4.74469 3.61551
2.07181 2.12183 3.90075
-0.417284 4.7006 3.74453
1.97706 2.09563 4.06695
2.07112 1.89582 3.8996
1.97022 1.89981 4.06756
1.19445 3.6972 4.06927
1.79283 1.8982 4.07301
3.58212 1.49773 4.04184
3.38581 1.49887 4.06061
3.46545 1.49738 3.61069
3.4647 1.30174 3.61121
3.18288 1.49986 4.0613
-0.663257 3.49512 4.03578
2.97419 1.50784 4.0621
3.18556 1.30203 4.06183
3.58637 0.900756 4.03918
-4.1666 2.7659 0.3734
-0.684248 -1.1003 3.99266
3.59255 0.699337 4.03452
3.38798 0.700402 4.05967
3.367 0.665699 3.74455
3.5763 1.09983 3.5864
-0.358695 3.28831 0.414466
3.46432 1.10201 3.61125
3.57551 0.900787 3.58531
3.65215 1.10223 3.41131
3.65223 0.901558 3.41037
2.79189 -0.0464065 1.80245
3.57776 0.700372 3.58286
3.40163 0.680699 3.64118
3.18787 1.10249 4.06136
3.52605 0.0954337 1.41419
2.98863 1.10348 4.06217
2.41587 4.91782 2.61352
3.18778 0.902152 4.06191
3.65349 1.10076 3.21136
0.192949 2.70357 -0.00126911
3.65306 0.901209 3.2102
2.79183 1.8896 4.06286
3.65822 1.09875 2.61194
-3.62649 4.64175 1.18691
3.6604 0.898124 2.21238
2.39926 1.69639 4.06588
3.31613 -3.23787 1.99245
2.40033 1.49933 4.06575
2.39881 1.302 4.06465
2.30405 1.30216 3.89921
2.1704 1.70009 3.98167
2.21469 1.69814 3.88731
1.79288 1.69781 4.0733
1.9697 1.49945 4.06827
1.97068 1.29909 4.06747
2.06866 1.29857 3.89593
1.79175 1.49833 4.07329
1.79136 1.29887 4.07191
2.30304 1.10194 3.89805
2.59261 0.701251 4.06366
1.58873 -3.34247 0.41381
2.30213 0.699931 3.89646
2.17095 1.10098 3.98176
1.97341 1.09929 4.06602
3.18866 2.29525 4.06123
2.06774 1.09808 3.89448
2.17141 0.902437 3.9817
1.97502 0.897438 4.06276
-2.3348 5.159 2.8658
2.21456 0.897221 3.88542
0.144562 2.17484 0.588967
1.59388 2.70081 4.07644
1.79236 2.50062 4.07607
1.59285 2.49994 4.07873
1.59149 2.29881 4.07838
1.39166 2.29897 4.08041
2.3078 2.90309 3.90034
0.993152 2.69869 4.08109
1.19238 2.4993 4.0825
0.991648 2.49871 4.08314
1.39133 2.09807 4.07974
1.59196 1.8979 4.07633
0.4914 3.125 0.1263
1.3926 1.89843 4.07967
0.991381 2.29897 4.08289
1.02874 4.81007 3.20512
3.48505 1.91597 3.35779
1.19213 1.89808 4.08113
0.99176 1.89857 4.0806
2.41625 4.7769 3.7155
-0.2078 2.49914 4.09332
2.39747 4.70526 4.07004
-0.308702 2.50107 3.80594
-0.205883 2.29792 4.09139
2.64027 4.57325 3.73422
-0.312377 2.29717 4.00656
-0.308802 2.35089 3.79584
-0.3088 2.1876 3.7463
-0.204865 2.09945 4.0906
-0.313984 2.09558 4.00628
-0.207799 1.89733 4.0898
0.806972 1.08254 0.615677
1.39172 1.69732 4.07888
-1.0699 -3.44322 1.81164
1.39208 1.49794 4.07753
0.828812 2.30066 0.20402
1.39238 1.29854 4.07533
0.991117 1.69871 4.07993
1.19145 1.49763 4.07852
0.990969 1.49801 4.07881
1.59101 1.09794 4.07216
0.879746 2.17364 0.185161
1.39072 1.09834 4.07363
1.39068 0.898322 4.07153
-4.30857 -1.6716 0.909275
-1.01493 4.91301 4.05693
1.19008 0.897546 4.07263
2.19582 -3.45106 1.01522
0.991197 1.09856 4.07547
0.991449 0.902619 4.07301
-0.00672934 1.69756 4.08322
-0.205968 1.69558 4.08986
-0.00773555 1.49806 4.0822
0.194816 1.29652 4.07681
1.38885 -1.30459 -0.00757448
0.194449 0.896979 4.07608
-0.00828508 1.29844 4.08115
-0.206723 1.29712 4.08868
2.38902 4.74709 3.61197
-0.00733488 1.0955 4.08042
-0.008131 0.895621 4.08018
2.39574 4.88217 3.57321
-0.207136 1.09699 4.08867
-0.414518 1.09688 3.50592
-0.413147 0.897706 3.50579
3.61906 4.89271 1.81182
-1.01095 4.29558 0.013269
3.61455 4.89714 1.41468
3.61364 4.89868 1.21412
3.61672 4.89372 1.61237
-4.39056 -3.0277 1.0074
3.39115 4.91012 2.04704
3.35326 4.78178 1.94119
-2.00745 -2.50063 0.00711223
-4.39278 -3.0276 0.782483
3.36985 4.82225 1.7721
3.35758 4.7965 1.69045
-3.10646 1.31336 3.91215
3.36325 4.78791 1.83506
2.98275 4.91207 2.0526
2.98555 4.7919 1.94554
3.02664 4.79542 1.87952
2.97763 4.80392 1.79975
3.34489 4.794 1.18762
3.18492 4.80508 1.61045
3.15233 4.79316 1.32705
3.19267 4.79042 1.20339
2.98058 4.79319 1.34644
-4.15549 0.575231 0.8485
2.98219 4.79164 1.17356
3.62371 4.89285 0.617348
3.35377 4.78122 1.00839
3.1884 4.77974 1.01201
2.98849 4.78008 1.00946
2.78974 4.49661 4.06732
2.99008 4.74441 0.80908
2.58666 4.88056 2.00858
2.42581 4.9178 1.81259
2.82737 4.79539 1.37444
-4.2125 -3.01375 0.04455
2.78534 4.81109 1.41823
2.42753 4.92076 1.61313
2.42643 4.92034 1.41363
2.43185 4.92122 1.21502
2.31702 4.77274 1.41166
2.19116 4.74884 1.20983
-1.3985 4.2783 4.1163
-0.811766 4.93908 2.41047
1.91471 4.83 1.60748
-0.814516 4.93801 3.01584
1.91492 4.81513 1.40134
-2.00995 -1.69837 0.00566976
-0.813202 4.93921 2.81241
1.9196 4.82554 1.20932
2.79309 4.78212 1.00762
2.43117 4.9183 1.01161
2.55218 4.84596 1.04638
2.52297 4.9231 0.609725
2.52752 4.90583 0.409232
2.43593 4.90287 0.402897
2.52615 4.87557 0.214593
2.20289 4.77489 1.00159
1.95519 4.82468 0.8894
3.46227 0.898567 3.61082
1.92833 4.83108 1.006
2.52938 4.88539 0.0352219
1.66105 4.85825 2.01337
-3.85069 0.337742 0.825355
0.788714 -3.4573 2.61218
1.80984 4.83143 1.81332
1.66348 4.8558 1.81239
3.4087 -2.84955 2.46965
1.66738 4.85772 1.63292
1.81679 4.83455 1.21277
0.790376 -3.46028 3.02604
1.80879 4.83589 1.40415
1.13336 4.84583 1.20629
1.81116 4.82643 0.889351
1.82594 4.83363 1.00768
1.71742 4.77862 0.997214
1.63532 4.80411 0.946366
1.59547 4.8046 0.894434
1.39075 4.81897 0.893926
0.200886 4.09758 4.09048
1.20745 4.82247 0.99999
3.65518 4.69206 2.0366
1.25089 4.73658 2.41138
3.60528 4.49407 2.0088
1.38997 -0.904031 -0.0154693
3.60474 4.2954 2.00739
3.54968 4.29566 1.81393
3.61441 4.68101 1.41218
1.24538 4.7439 2.81215
3.55876 4.49608 1.61339
2.30275 4.77233 2.60434
3.60954 4.67584 1.21435
1.19171 4.7659 3.40639
3.56919 4.49612 1.41418
1.20883 4.76256 3.21776
3.57323 4.49545 1.2135
3.55985 4.29587 1.6134
3.56801 4.2976 1.4152
3.57108 4.30046 1.21409
3.60837 4.09575 2.00697
3.55478 4.09526 1.81391
3.61228 3.89808 2.00487
3.5651 3.90035 1.81305
1.38792 -0.299768 -0.00832902
3.56296 4.09622 1.61364
2.77762 4.88527 2.02521
3.5721 4.09833 1.213
3.57086 3.89997 1.61273
3.48272 3.64506 1.62434
3.4878 3.65639 1.4536
3.57638 3.89941 1.21396
2.30795 4.77433 2.41614
3.61173 4.68097 1.01147
2.31272 4.77068 2.21973
3.60954 4.68275 0.81599
1.1915 4.75602 3.61589
3.56514 4.49748 0.816202
3.57229 4.30109 1.01313
-3.80296 2.69536 0.0172251
3.56094 4.29786 0.813789
2.31578 4.77149 2.01592
3.57709 4.66821 0.61381
2.31491 4.77079 1.81629
3.53278 4.67003 0.399394
3.54637 4.49402 0.615437
3.54264 4.29664 0.615636
3.51245 4.29816 0.413253
3.4555 4.1431 0.3887
-4.36683 -3.2795 2.30077
3.36357 4.65167 0.410192
3.18912 4.69071 0.611178
3.18771 4.60889 0.239307
0.190609 -0.102681 -0.00502578
3.18752 4.64014 0.41446
2.9871 4.64161 0.41471
2.7881 4.91852 2.21205
3.57193 4.10004 1.0129
2.788 4.91723 2.41198
3.56096 4.09819 0.817936
3.57308 3.89685 1.01266
-2.21109 2.89393 0.00968846
3.56235 3.91271 0.84554
-3.1082 3.653 3.9115
3.38744 3.8527 0.612481
3.32313 3.85592 0.43876
3.22746 3.85723 0.213728
2.1957 4.76075 2.01361
0.592695 2.699 4.08431
2.19245 4.74433 1.41172
2.00735 4.73732 1.61594
2.01292 4.74455 1.41361
2.78955 4.65191 0.414051
2.78914 4.62049 0.215029
-0.7244 -1.6032 3.6487
2.31954 4.70384 0.8098
2.19154 4.70761 0.816737
2.3192 4.64673 0.611878
2.32724 4.62326 0.482328
3.19021 -1.1211 1.01662
2.31661 4.57709 0.395634
-0.61074 4.69563 0.0142073
3.19352 -1.13972 0.414633
2.31566 4.53125 0.212797
-1.225 4.47696 0.0351435
2.19142 4.53529 0.214518
3.57049 3.51296 2.01184
3.63914 3.74983 2.00241
3.58209 3.5133 1.81479
3.47597 3.16472 2.01188
3.5415 3.10018 1.81479
3.57986 3.70869 1.61078
3.59772 3.52526 1.41779
3.56988 3.69642 1.41113
3.55611 3.68967 1.2133
3.59188 3.52742 1.21582
3.7134 -1.0203 3.2898
3.45576 3.22302 1.60835
3.8162 -1.1421 2.3028
3.486 3.2273 1.08819
3.53741 3.09941 1.41139
3.69142 -2.17586 2.64672
3.4869 3.19735 1.3055
3.47699 3.18831 1.41756
3.48603 2.91399 2.02483
3.48531 2.91522 1.81234
3.55229 2.73194 2.01784
3.51207 2.88556 1.81329
3.54244 3.10779 1.61558
3.48484 2.91877 1.61146
3.48917 2.93384 1.25558
3.51062 2.88709 1.61436
3.70161 -0.897118 3.24693
3.45542 2.67435 1.60565
3.5123 2.8779 1.40148
-2.20659 2.69612 0.00928288
3.5574 3.69464 0.871328
3.55605 3.68981 1.01088
3.56937 3.51276 1.01155
3.5557 3.50878 0.867926
3.44972 3.69656 0.790222
3.72797 -1.10007 2.47472
3.43709 3.29856 0.79109
3.38052 3.69571 0.612818
3.31478 3.70179 0.452425
0.17704 4.68769 0.00921321
3.35972 3.29663 0.612736
0.20367 3.50111 0.809414
3.3035 3.29869 0.478244
3.21934 3.6978 0.213801
3.53198 3.10582 1.00921
2.78218 -1.10317 1.61358
3.51097 2.911 1.01029
-2.613 4.78639 3.72182
3.48674 2.69328 1.07829
3.51539 2.69808 0.995616
3.521 2.70558 0.872893
3.35397 3.09758 0.612921
3.30032 2.9039 0.490624
3.28873 2.61733 0.520243
3.29696 2.71502 0.495955
3.26409 3.09639 0.387224
3.2045 3.09812 0.216181
3.26167 2.89566 0.393546
3.39753 4.29785 0.0191781
3.59393 3.49696 3.84752
2.98927 4.53084 0.0194496
3.4886 1.9785 3.7288
1.00341 4.84724 3.58157
3.595 3.29545 3.84499
2.98822 4.29614 -0.0105182
0.61728 -0.903572 -0.00839737
2.99351 4.1003 -0.0125782
3.15331 3.88871 0.020841
0.620087 -1.10529 -0.00740728
3.0192 3.90854 -0.0142113
2.79545 4.52061 0.00301338
-0.0192856 4.69723 0.0161524
2.7935 4.30303 -0.0114959
2.59114 4.49536 -0.0078929
3.18301 -1.13373 0.609101
2.39298 4.5033 0.00506464
1.0938 1.80511 0.694686
3.52915 3.30202 0.872099
2.81136 4.1173 -0.0131946
2.79068 3.89663 -0.0145924
3.58395 4.69501 4.06159
2.39004 4.29496 -0.00992292
2.18988 4.29684 -0.00913944
2.19201 4.10017 -0.0111072
1.98908 4.29586 -0.00807226
1.99157 4.09598 -0.00988951
3.15081 3.70019 0.0350813
3.58987 2.70215 3.84345
2.99384 3.6951 -0.0160557
3.58794 2.50126 3.84203
2.98983 3.49415 -0.017715
-0.00688373 1.89887 4.08428
2.99022 3.29336 -0.0191753
3.14833 3.09495 0.043374
2.7888 2.89711 4.06219
2.98998 3.09246 -0.0210091
2.99535 2.90058 -0.0204402
2.79172 3.69422 -0.0159435
3.58002 2.75682 1.81821
2.79146 3.49588 -0.0169883
2.39037 3.49568 -0.014722
2.3911 3.29382 -0.0157548
2.59328 0.901673 4.06333
1.99277 3.69749 -0.0130278
2.19254 3.49495 -0.0134911
3.63472 -1.09357 0.81169
2.19104 3.29416 -0.0121755
3.57596 3.90039 1.41379
2.79065 3.09491 -0.0203147
2.39265 3.09527 -0.0185745
3.59466 3.72979 1.80884
2.78891 2.90879 -0.0238156
2.39102 2.89402 -0.0217221
2.19154 3.09574 -0.0166022
2.19313 2.89398 -0.0194727
1.76175 4.76545 2.0172
1.74342 4.76286 1.81529
1.5602 4.76705 2.01064
1.56902 4.76248 1.81315
1.72952 4.75979 1.61148
1.71775 4.7661 1.21033
1.72329 4.76131 1.41457
1.58781 4.7543 1.41162
1.57323 4.76192 1.20639
3.68402 4.49189 2.41149
1.23676 4.73372 2.02121
3.18821 -1.10292 1.61306
3.68649 4.49074 2.8103
1.2226 4.74037 1.62209
1.38981 4.76438 1.20964
3.62415 4.55115 3.80103
-2.15257 5.05457 3.4604
-0.610972 4.29547 0.0110137
3.27467 0.000213559 0.825969
1.21197 4.79254 1.06342
3.18359 -1.09628 1.81228
1.2246 4.75436 1.40225
-2.13057 5.05357 3.54647
3.27509 -0.000392857 0.637879
3.68755 4.49 3.21286
1.23143 4.77824 1.21282
1.79061 4.70757 0.810151
1.5917 4.70998 0.811307
1.79095 4.64283 0.613949
-0.681256 -0.102002 3.99415
3.61579 4.89788 1.01473
1.79038 4.60537 0.487089
-0.671786 1.29758 4.02868
1.7919 4.53739 0.215256
1.59291 4.60536 0.48774
1.59173 4.64321 0.613541
-1.0366 -3.4022 0.4817
1.59198 4.5784 0.392461
3.2964 -3.19565 2.1898
1.39289 4.57744 0.392669
1.59278 4.53553 0.214982
0.593646 3.29678 4.07961
2.30347 0.90132 3.8976
1.39338 4.53306 0.214601
3.60698 4.49468 3.58901
2.3913 4.09441 -0.0114191
1.19165 4.71411 0.808901
3.27745 -0.00125 0.49485
1.19383 4.64506 0.613494
-2.20807 5.11965 2.84983
3.5821 4.49695 4.06197
1.19386 4.60525 0.48989
1.19343 4.57719 0.391715
1.19397 4.53224 0.216093
1.7895 4.49944 0.0553541
1.38689 4.47998 0.0347582
1.5891 4.49504 0.0489833
1.38373 4.30632 -0.00514
1.78956 4.29848 -0.00696569
-0.407296 4.89628 0.225416
1.7916 4.09877 -0.00827806
1.59044 4.29469 -0.00642246
1.59378 4.09525 -0.00722564
1.39828 3.89874 -0.00727413
1.59101 3.8985 -0.00854157
1.79099 3.69536 -0.0114494
2.98126 -1.10294 1.61378
1.59264 3.69666 -0.0102626
1.40045 3.69621 -0.00812105
1.79209 3.49368 -0.0100488
-3.1577 5.0098 3.591
1.59003 3.49476 -0.00993438
0.631109 4.7831 3.41348
1.39817 3.49044 -0.0088359
1.59284 3.29494 -0.0128941
1.79097 3.09517 -0.0142328
-0.993183 -2.86468 0.22865
1.59035 3.0958 -0.0135298
1.39711 3.29107 -0.011402
1.3934 3.09679 -0.012045
3.66046 1.68492 2.21373
1.79306 2.89498 -0.015439
1.59362 2.89737 -0.0145501
0.988624 -3.45567 2.48224
1.1936 2.89663 -0.0112469
1.39421 2.89573 -0.0130282
3.51087 2.54364 2.01556
3.48133 2.45241 2.00777
-3.9856 3.9969 1.0346
-2.5718 5.2621 0.9408
-0.00795676 3.49632 0.00163618
0.391604 2.0985 4.08113
3.46804 2.3699 2.01711
-4.1047 3.7756 0.03495
3.47825 2.45053 1.81371
-4.09183 3.93463 0.0456857
3.46807 2.36812 1.81071
-2.21 3.09383 0.00997174
3.50758 2.5118 1.41303
3.50726 2.50109 1.21096
-0.409599 3.15087 0.19437
3.48208 2.45451 1.61197
3.47698 2.34875 1.40941
3.51526 2.26768 1.41527
3.50948 2.26666 1.2121
-0.016182 3.45953 0.753073
3.48151 2.34111 1.21472
3.71341 2.04689 2.03659
3.48029 2.0474 2.0034
1.00677 4.85336 1.6119
3.43182 1.93548 1.81465
3.62396 1.68578 2.00952
3.54641 1.69555 1.81153
3.47699 2.02858 1.22512
3.46356 2.02812 1.41671
1.0302 4.84825 1.41331
3.42487 1.9281 1.61391
1.0381 4.84877 1.21146
3.43374 1.9222 1.41504
1.02395 4.83473 0.995053
2.78847 4.09585 4.06132
3.44746 1.92421 1.21132
3.54515 1.68892 1.61343
-3.80074 2.10359 0.0256436
2.79009 3.29593 -0.0179153
3.52003 2.50264 0.872411
3.5109 2.49662 1.01452
3.48887 2.42585 1.08309
3.7075 2.14233 0.6629
-0.00426792 3.58673 1.0012
3.48459 2.33505 1.04546
-3.9577 3.994 0.6228
3.39374 2.29804 0.789222
0.19376 3.9883 1.72368
3.25168 2.50721 0.408275
3.19298 2.69934 0.217606
0.199639 3.9532 1.58454
3.18659 2.50612 0.219193
3.70942 2.06308 0.96272
1.19157 2.29872 4.0815
3.5082 2.1268 0.873395
3.71108 2.0834 0.80224
3.48316 2.02235 0.993233
1.01642 4.8315 0.892857
3.44164 1.93436 1.01594
3.38252 2.09188 0.802631
3.31415 2.1052 0.650597
3.37951 1.92745 0.805936
3.5386 1.85459 1.01297
3.54119 1.69276 1.01184
3.53814 1.85155 0.820485
3.64481 2.04976 0.58745
0.792908 4.46994 0.0345371
3.55964 2.06704 0.41758
1.1934 2.89874 4.07693
3.57911 1.95163 0.411
3.52935 1.93007 0.258825
3.50393 2.05803 0.216793
3.45503 2.06705 0.384928
0.210912 4.03514 1.65239
3.26953 1.93337 0.5786
2.78862 4.29486 4.06436
3.4596 2.1048 0.210004
3.36199 1.91061 0.638377
3.50682 1.8469 0.616368
-1.41094 2.09956 0.00424081
3.48768 1.683 0.547488
3.46253 1.68552 0.411809
3.40218 1.85822 0.217209
3.21942 1.93008 0.41136
-0.247544 3.29731 4.05513
0.183668 4.16669 1.96715
3.15594 1.92946 0.213951
-3.23221 4.65813 4.13027
-0.209433 4.91246 0.408569
0.79234 0.295776 4.07823
3.53783 1.3016 1.8121
3.53971 1.5012 1.61276
3.54145 1.5029 1.41337
3.54301 1.50315 1.21395
-0.209683 4.93816 0.615357
3.54454 1.30321 1.2132
0.199849 2.89833 4.08776
3.63154 1.09689 2.02299
-3.65968 4.69662 0.95008
3.62481 0.89697 2.01865
3.61833 0.698243 2.0183
3.54718 1.10091 1.41089
3.55093 1.09868 1.21132
3.55301 0.897794 1.41406
3.55395 0.89559 1.213
3.5468 0.700021 1.41252
3.54214 1.50199 1.01269
3.53275 1.50181 0.809947
3.54548 1.30105 1.01137
-0.208999 4.89411 0.223733
3.53917 1.30188 0.811776
-1.40989 1.89963 0.00358735
3.4878 1.53565 0.527174
-0.209681 4.29709 0.00808543
3.50875 1.49461 0.619245
2.21519 1.49891 3.88655
3.46702 1.49979 0.410611
3.51747 1.2981 0.613182
3.49665 1.27194 0.491
3.4395 1.29747 0.400524
3.55265 1.09825 1.01231
3.54644 1.09991 0.815092
-0.691493 -2.49995 3.98984
1.19365 2.69912 4.07973
3.53111 0.901821 0.61314
3.44896 0.911507 0.378548
3.50527 0.870982 0.431546
3.46574 0.68882 0.225094
-4.2044 4.2109 0.3957
3.52431 2.30252 -0.0120167
3.13641 2.70762 0.0383193
0.204543 3.8784 1.4213
3.12913 2.50249 0.0362869
2.99123 2.4972 -0.0234249
3.02772 4.59629 0.133631
3.42022 2.08723 0.0217204
3.35849 1.87315 0.0288991
3.36212 1.68507 0.028726
3.66159 1.09794 2.21313
2.98844 2.09859 -0.0197176
2.78757 2.1005 -0.0199702
3.18437 1.68904 -0.0223089
3.50363 2.28323 1.00069
2.98837 1.70025 -0.0180518
2.79367 2.70177 -0.0188767
2.59141 2.70184 -0.0213848
2.82448 2.46698 -0.0240385
-0.410051 3.89629 0.00673391
2.3782 2.73849 -0.023766
0.59481 4.7814 3.02254
1.99377 2.69491 -0.0190634
1.76868 2.30887 -0.0217649
3.48718 2.92263 1.4119
2.58869 2.10111 -0.0206575
2.39511 2.09272 -0.0208424
2.58964 1.90082 -0.0180395
2.38988 1.90177 -0.0182649
2.19528 2.07204 -0.0183374
1.99328 2.06579 -0.0162804
3.26834 3.49305 0.37222
2.18962 1.9006 -0.0168061
1.98911 1.90124 -0.0177269
-3.756 4.4519 0.9819
1.79031 1.90167 -0.0149164
3.36225 1.50125 0.0276251
3.18791 1.09664 -0.0227912
3.19053 0.898364 -0.0221853
2.58905 1.70029 -0.0176119
0.275944 3.61332 0.887066
3.43063 3.09677 0.792807
2.58922 1.49821 -0.0185579
2.39046 1.70011 -0.0175379
2.58943 1.29872 -0.0174148
2.38878 1.29801 -0.0183196
2.19129 1.69899 -0.0170138
1.98889 1.70051 -0.0182433
2.1896 1.50033 -0.0173739
-3.83178 4.64912 0.617809
1.79098 1.70017 -0.0163919
0.391493 1.89836 0.898213
2.18972 1.29868 -0.0174916
1.98924 1.29801 -0.0169102
1.78978 1.29916 -0.0165716
0.190734 4.89215 0.0397605
2.58793 1.09789 -0.0194003
2.39058 1.09833 -0.018909
2.59014 0.89779 -0.0242882
2.58851 0.696251 -0.0243846
2.18983 1.09774 -0.0204043
1.99089 1.09796 -0.0192814
1.78668 1.09553 -0.0181798
1.77372 0.888653 -0.021669
3.2899 0.6258 3.7038
-0.00890752 1.89817 0.90408
2.76091 4.60433 0.0766724
1.11425 1.6643 0.412787
3.2705 -0.8537 1.9527
1.11627 1.70738 0.812761
1.06792 1.71576 0.60582
0.950233 1.5714 0.818948
3.6963 2.8045 3.5511
-1.21349 3.48607 0.00994045
0.990163 1.54965 0.612813
0.994234 1.52329 0.414564
1.07204 1.74189 0.200441
1.10887 1.6618 0.209338
-1.20669 3.10033 0.0085125
0.994058 1.54695 0.220488
-1.00385 4.89929 0.227724
1.1036 0.8355 0.2731
0.918485 1.05314 0.344428
0.978158 1.087 0.00685388
1.23566 4.75398 3.02032
3.54638 4.49348 1.81115
-0.00861123 1.69656 0.904168
-0.207738 2.90163 0.00381623
-0.00857714 1.49584 0.903046
-0.7258 -1.4675 0.1117
1.56404 4.78314 1.01398
-0.210955 1.49795 0.905125
0.194714 1.26928 0.843352
0.118932 1.18512 0.7953
0.137725 1.16007 0.611763
0.153956 1.13456 0.409489
-0.287403 1.98809 0.608947
-0.00700227 1.29564 0.899574
3.68468 4.69839 2.21298
-0.015461 1.1398 0.815969
-0.207501 1.29785 0.903793
-0.210382 1.07211 0.837624
-0.290995 0.98935 0.732927
3.60012 4.67715 1.6136
-0.0113463 1.0922 0.614146
-0.167297 1.02459 0.629152
-0.10034 0.99538 0.32744
-0.132539 1.00791 0.461844
0.0198292 1.03149 0.223469
-0.0736299 0.982699 0.190381
-0.26122 0.976322 0.598462
1.18245 -0.700995 -0.0139574
-0.209868 0.925752 0.213554
1.39164 2.69579 -0.01386
1.19471 2.69681 -0.0117439
1.59276 2.29541 -0.0191207
1.39219 2.49672 -0.0150275
1.19859 2.49515 -0.0129511
1.18763 2.28835 -0.015374
1.58637 2.08902 -0.0200999
1.38771 2.29052 -0.0171719
3.58254 1.10096 4.04062
1.19838 2.09932 -0.01632
1.57926 1.9044 -0.0183629
-0.00682727 3.61944 0.981694
1.19779 1.89908 -0.0168417
1.57373 1.49824 -0.0199745
1.21504 -1.66055 -0.00465431
1.57574 1.29629 -0.0204
1.39439 1.49991 -0.018053
1.39505 1.2997 -0.0184145
1.06846 1.72656 0.0252057
1.00601 1.29829 -0.0120259
1.59177 0.898873 -0.0196746
-1.01076 4.94401 1.61257
1.18813 0.895626 -0.0155662
0.189972 0.895788 -0.00552453
0.0539173 1.01538 0.0565806
-0.0165032 0.910746 0.0130962
-0.202314 0.875505 0.0318916
3.41658 3.46476 3.64703
-0.38776 0.833477 0.0446207
-1.20825 4.95286 3.85277
-3.50017 2.86358 0.128117
-1.21036 4.94122 3.41261
0.57287 1.30868 0.821629
-1.21019 4.94095 3.21238
-1.21104 4.94055 3.01221
-4.3484 2.12917 0.212002
1.40033 0.899608 -0.017996
-1.2118 4.94082 2.81474
0.532376 1.28428 0.617221
-1.20861 4.94093 2.61155
0.502627 1.2156 0.0426818
-1.20903 4.94133 2.41316
-1.0219 4.7798 3.7188
-1.01408 4.69355 4.09853
-4.20276 2.29893 0.0200764
-1.01299 4.49559 4.0986
-0.996717 -1.89494 0.408618
-1.2106 4.91779 3.59199
3.57765 4.9185 3.84917
-1.01223 4.29605 4.09987
-1.61999 4.86684 3.85156
-1.80998 -3.36688 0.412851
-1.62027 4.77618 3.71847
-1.61107 4.69513 4.10162
2.19379 4.494 0.0499483
-1.21027 4.76597 3.62823
-1.57828 4.89636 3.58226
3.70312 4.86572 3.99853
-1.58382 4.90424 3.40984
-1.83209 -3.39972 0.736112
-1.67137 4.75835 3.41083
-1.81083 4.8411 4.02489
-1.80869 4.85123 3.85191
-1.83249 4.78055 3.72204
-2.00953 4.84284 4.02667
0.391892 2.69821 4.08652
-1.80939 4.69586 4.10162
-1.811 4.7714 3.41853
3.36675 4.81691 1.59812
2.4491 -0.700485 1.01462
3.36561 4.81703 1.41275
2.45178 -0.700652 0.813874
3.49569 -2.07269 0.245111
0.391131 0.894018 -0.00585889
2.48072 -0.532369 0.616351
-3.41333 2.11718 0.0203384
2.49881 -0.451959 0.213712
-1.81229 -3.43738 1.61313
3.4316 4.86705 1.04713
2.45642 -0.706215 0.41551
-1.18003 3.91443 0.0106273
3.53574 -2.06032 1.41206
-1.611 1.2973 0.00459539
1.9902 4.74919 3.21275
-2.00809 0.494085 4.08638
3.19857 0.481321 -0.0235533
2.78727 -0.0718082 0.00986931
0.593828 -2.49645 -0.00297546
-4.00891 -0.701965 4.10062
-2.407 -2.70099 4.09791
3.44921 -1.316 0.583682
0.542964 1.08808 0.0296346
3.63646 -2.89898 3.01226
1.97666 0.686033 -0.0181111
1.2001 4.83151 0.892895
1.98795 0.492649 -0.0159537
1.9908 0.298467 -0.0165484
-2.80732 0.914315 0.035101
2.58035 -0.0990842 0.00115698
2.5364 -0.298824 0.0141817
-3.5913 -3.3965 3.8238
2.18972 -0.101846 -0.0178997
3.5273 -1.32598 0.000831034
-3.30196 1.81796 1.01417
2.78716 -1.14052 0.00660788
0.79397 2.89906 4.07966
3.49232 1.44683 0.496167
-0.389878 -2.33552 0.115316
-3.10682 1.91286 3.91224
-0.20984 -3.32974 0.616234
-3.24949 -3.08954 1.01562
2.18864 -0.501759 -0.0180553
2.52729 -0.872185 -0.0230636
3.2234 -2.69885 2.21228
-3.60371 1.96466 0.0159797
2.18758 4.72085 4.0596
-4.34173 2.29509 2.81261
2.0076 -0.498288 -0.0177944
2.00174 -0.904476 -0.0206839
-0.321032 1.29627 4.01037
-1.80557 4.8675 3.59113
2.18749 -0.901764 -0.0224231
-1.60216 4.90316 1.00835
-0.197921 4.41636 2.28212
1.323 0.548 0.1834
1.11764 0.647735 0.349241
-2.20872 -1.49922 4.09608
-4.27517 0.894941 3.62651
-1.05013 -2.69604 0.810081
0.589871 0.493418 -0.0113589
3.57036 -3.44517 3.41397
-4.26895 -0.499898 3.81892
-4.23761 -0.500432 4.04672
-4.36385 1.09714 0.4995
0.992635 0.697248 0.35898
3.64585 -3.10093 3.8586
0.983388 0.292482 0.218616
3.44914 3.84902 0.784079
2.60795 2.26349 -0.025913
-3.21111 -1.70716 0.0112531
3.2343 4.79686 1.68958
3.44168 -1.69607 0.41425
1.38874 0.0992733 -0.0112322
0.189639 -0.504072 -0.00468802
-2.60482 -0.102211 4.09376
2.59007 -1.10103 4.06528
-4.33959 3.28554 0.665278
-3.52417 4.08537 0.0370159
0.973335 0.287132 0.0367884
3.5673 -2.8179 1.1968
-0.831633 4.94645 3.84396
0.391214 0.694843 -0.00835324
-0.208883 0.69436 -0.000947741
2.06062 -0.704776 3.88757
0.191269 4.76106 3.62306
-4.33951 1.3022 2.01011
2.52378 -0.487226 0.0101015
-1.41038 -2.70112 0.0072566
-1.81117 -3.43608 1.41277
-0.217255 -0.0965854 -0.00205816
-4.35588 0.695337 1.03219
3.2937 -3.2676 1.9037
2.30505 1.49939 3.90063
-2.40852 1.69813 4.09225
3.54096 -1.67997 1.81367
3.46675 -1.74128 2.01165
-4.32848 1.10043 3.75374
3.47955 -1.92302 2.02574
3.54426 -1.67799 1.61206
1.98502 -0.50229 4.07031
-4.32044 4.69599 3.41235
-1.66621 4.74327 2.81319
-4.33426 4.28971 1.8223
3.5866 -1.50067 0.6457
-1.01287 4.93899 3.21251
2.78958 0.697847 -0.0243241
3.59072 -1.70748 0.652142
-3.11304 1.18723 0.636746
-1.65629 4.75243 2.00823
-4.32482 4.69679 2.61202
-4.33044 4.29762 2.01313
-4.73423 4.7942 1.24877
3.21418 -2.29938 0.812902
-0.610016 4.94188 1.81282
1.98964 0.0974978 -0.0176397
1.18933 -3.46158 3.41093
-0.40145 -2.13146 0.113962
-3.34245 4.58855 3.7096
3.43768 -2.22267 0.099675
-1.05383 -2.29697 0.814236
3.53942 -1.49848 3.99843
3.43698 -2.72015 1.75882
3.22136 -2.89833 1.61242
1.59034 -0.903529 -0.0152688
3.47251 -1.7569 1.41812
-4.30588 1.26082 1.20197
2.98881 3.89697 4.05662
3.22091 -3.0987 2.01284
3.22219 -3.0981 1.81434
3.41281 -2.70661 1.61236
-2.78653 -1.30884 0.640724
-4.47736 4.44692 1.4157
-3.60403 -3.43449 2.61241
1.79071 0.297522 -0.0140186
-0.931743 1.34351 0.616067
2.99501 -3.35262 1.81653
3.46972 -1.75436 1.6181
-0.0106463 4.74893 2.94216
3.222 -3.10302 1.41367
3.44248 -1.69466 0.584994
-0.00735103 4.69794 4.09682
3.22056 -3.10188 1.21376
-3.62468 -2.90064 4.10053
2.58287 -3.35452 2.01343
3.61983 4.89765 0.815819
-0.624659 -0.102072 3.7697
0.991752 -3.3454 2.01215
2.7859 -3.35589 1.61324
-4.2885 1.1677 0.5914
1.79529 -3.3479 2.01664
0.98786 -3.29751 4.07975
2.78757 -3.34898 1.2099
1.79146 -3.34508 1.61306
2.58195 -3.35495 1.61265
-3.26564 -2.95859 1.92285
-4.36081 0.0989163 1.02022
2.58218 -3.35509 1.41435
-3.26803 -2.95903 1.81486
-3.60186 4.29278 4.11177
3.47274 -1.75106 1.21236
-0.531911 -1.50445 0.104806
1.98714 -2.10134 -0.00560878
-0.00993026 4.75795 3.62426
3.21893 -3.10099 0.814778
0.984821 -1.10388 -0.00612677
2.99218 -3.35732 1.61277
3.21738 -3.10011 0.414255
2.99379 -3.35743 1.41236
3.21692 -3.10497 0.214426
3.21475 -3.45645 0.411096
1.79301 3.90091 -0.0102061
-3.9054 -3.3822 4.2486
-3.80692 4.0164 1.00779
-0.952484 1.30906 0.220152
2.95662 -3.31286 0.614143
-3.80818 3.69598 4.10828
0.93405 -3.3819 3.73
2.7864 -3.31403 1.01281
2.59335 -3.31561 1.01311
2.59198 -3.31532 0.812701
2.97697 1.68731 4.06226
-3.26797 -2.96612 1.21022
-3.68132 4.34704 4.11304
2.78829 -3.3142 0.613601
1.7928 -3.34432 1.41352
2.7213 4.67858 3.77631
2.98442 4.91468 2.61084
1.78703 -3.29973 4.0686
2.59102 -3.31425 0.21542
-4.20685 1.12945 0.811788
1.79345 -3.34616 1.81219
0.588003 -3.32508 0.614119
-4.3507 1.69962 2.01162
1.98966 -3.33268 1.01336
2.98734 -2.09794 4.04745
2.18719 -3.31272 0.61303
2.18497 -3.31355 0.411705
0.394391 -0.504314 4.08466
0.977353 4.84037 2.01629
3.45083 1.9383 2.21206
-4.23178 0.500492 4.04674
2.12183 -3.43543 0.165867
-1.4091 -3.44343 2.21197
-1.21338 3.49707 4.09658
2.98763 4.80832 1.6138
3.18739 -1.31729 -0.0197475
1.80441 -3.34338 1.00806
1.20487 0.30849 0.0208899
2.78596 -3.35545 1.81344
1.78934 -3.34268 0.813018
-3.7368 5.0262 0.0653
-0.688114 -1.70177 3.99102
1.39605 4.74026 2.01385
-2.80803 2.49714 0.00880565
1.78768 -3.34102 0.613745
2.41076 3.09943 4.05679
0.586857 -3.33716 1.01334
0.596915 4.85071 2.81073
3.40729 -1.50257 0.0171131
-4.34519 0.0975719 1.21294
-1.01099 4.94 2.6152
3.53024 -1.698 -0.010025
-4.32462 4.69632 2.81217
3.63032 -2.44091 2.00419
-2.20877 -2.49846 0.00773404
2.79095 -3.31464 0.213953
3.57771 4.66273 1.81483
-0.0101396 1.05433 0.414292
-1.40757 0.097104 0.00636559
3.18584 -1.89536 -0.0168796
-3.61578 -2.50015 4.10297
-4.33499 3.29771 2.81229
3.24222 -2.17881 1.61174
2.59061 -1.30146 4.06278
0.788767 -1.89804 0.00421
1.7909 0.497303 4.06934
2.98794 -1.50142 -0.0188583
2.58749 -1.50188 -0.0195697
2.58671 -1.70175 -0.0177859
-3.2339 1.09508 4.01143
3.38706 -2.07016 0.0304553
3.20433 -2.11622 0.0107492
-2.22021 4.84276 2.02798
3.27883 3.85323 0.342116
-0.563042 1.90186 3.50487
-4.33029 4.29785 2.21233
2.78722 -1.90303 -0.0180486
2.58556 -2.09211 -0.0153014
2.58773 -2.30175 -0.0143825
2.38551 -1.50165 -0.0176566
3.52352 -1.3388 0.996468
-1.81234 3.89197 0.0138246
1.98651 -1.50167 -0.0106826
-2.64507 -0.676873 0.564761
-0.0988 -3.0002 0.1153
-3.78489 -2.72432 0.0155909
-2.56131 -1.11834 0.0523091
2.18498 -2.29559 -0.012267
-2.60848 2.30025 4.09468
1.98541 -2.29035 -0.00567583
-2.36925 5.22895 1.07365
-3.01825 -3.09492 4.08315
1.61201 -2.09226 -0.00472242
-2.60807 2.10012 4.09461
1.60105 -2.29059 -0.00427229
-2.60634 0.291936 0.412536
0.875139 1.16223 0.214773
2.98082 -2.4975 0.00820314
3.48311 0.695775 0.352468
-1.77598 4.80499 2.2213
2.79191 -2.50442 -0.00965789
3.38958 -2.50028 4.04878
2.98804 -2.70234 0.0144654
2.98786 -2.901 0.0162604
3.20117 -3.44692 0.0541071
-0.311155 2.4966 4.00578
-3.00765 -3.30147 4.1031
-0.00511419 -3.33367 0.618199
2.58808 -1.30352 -0.0207018
1.78589 -3.36488 3.6182
2.58656 -3.28055 0.0372972
3.39885 4.62891 0.233591
-0.0209775 0.109095 -0.00414428
-0.0029 3.97152 1.59425
2.38665 -2.50068 -0.0137862
2.48277 -0.554716 0.218554
2.38866 -2.70166 -0.0123014
2.18976 3.89622 -0.012611
3.55271 -2.0874 0.813884
2.18713 -2.69937 -0.011154
3.18637 1.8946 4.06
1.9883 -2.50198 -0.01229
1.98722 -2.70118 -0.0110428
1.58942 -2.50479 -0.00989427
-0.809973 4.29773 0.0121435
3.29332 -0.00287692 0.580231
-2.40924 4.85503 3.591
2.18753 -2.901 -0.0105626
-3.79553 -1.5189 0.0105174
1.98624 -2.90038 -0.00923333
2.18984 -3.10349 -0.00633398
1.78636 -3.10119 -0.00803163
3.58727 -2.26956 1.18238
2.79119 1.10473 4.06255
-3.75863 4.96281 0.813041
1.58963 -2.89993 -0.00775308
-3.42485 4.53529 1.41755
1.60582 -3.11137 -0.00784533
0.856144 4.82462 1.81218
-1.21034 1.6974 4.09195
-0.614353 3.0927 0.00629176
2.58427 -3.34831 1.20829
-3.2674 -2.96033 1.6177
1.60796 -3.31715 0.0171902
1.78768 -3.30657 0.0128296
0.587122 -3.33159 0.813387
-2.80558 3.89802 0.0177488
-0.631933 -1.89873 3.76319
-3.6204 4.9543 3.8465
-0.412929 -1.33234 0.118418
-0.210615 -1.50501 0.101078
-3.59664 4.77414 3.64357
-0.401879 -1.49991 0.105039
-4.37205 -0.915443 0.462218
-0.210887 -1.8938 0.103034
1.58922 -0.102288 4.07724
1.34805 4.81295 0.982415
-0.53624 -1.70594 0.104701
-3.6132 -1.09922 4.10045
-0.569919 -1.90288 0.218586
-3.42653 1.0955 4.07331
3.22255 -2.8961 1.81252
-4.37188 -0.700481 0.813642
-0.208019 -2.09852 0.103853
-1.01112 4.09697 0.0123346
3.65922 0.696478 3.84589
-0.627574 -1.09996 3.76685
-4.23717 3.35034 0.6315
0.791786 -3.34476 1.81358
2.58905 -3.10035 0.0126527
-4.18517 3.28252 0.354914
-4.35094 -0.30249 2.01202
0.588735 -3.34405 2.01315
-4.35693 -0.0947548 2.8132
3.54747 0.699464 1.21213
0.790963 -3.33827 1.21257
-0.611058 3.49738 0.00678958
3.51366 2.10874 1.01557
2.98684 1.49916 -0.0192766
-3.55335 4.29393 0.613527
2.30786 3.10245 3.89995
0.587029 -3.34074 1.21257
0.611622 -1.90535 4.08128
-4.35602 -0.0946134 3.01304
1.19367 4.47201 0.0314662
-2.8062 -0.499948 4.09433
3.52213 -1.1466 -0.0101312
-1.01518 3.09787 4.09632
-0.010003 4.9321 3.412
1.80285 -2.4976 -0.0106532
-4.20903 2.69783 0.0213732
3.50053 0.701288 0.444512
0.789064 -3.32512 0.41364
-4.34546 -0.100923 1.61128
3.38778 -2.10217 4.04791
0.790103 -3.32138 0.221558
3.5258 2.09545 3.58768
-3.56579 4.29864 0.0385192
0.589999 -3.3191 0.413749
0.589393 -3.31724 0.222218
0.386045 -3.3438 1.81275
-3.02024 3.0989 4.0454
0.38576 -3.34274 1.61313
2.58743 3.09871 4.05927
3.02744 2.68544 -0.0224511
0.387401 -3.34197 1.41347
2.21418 1.30143 3.88629
0.189428 -3.34207 1.21029
-4.35479 -1.49992 3.55156
-1.41355 2.69966 4.09405
-0.211178 -3.33533 1.41297
-0.20811 -3.33654 1.21163
-3.19997 -3.08302 4.0196
-0.201069 -2.29684 0.106418
-0.408862 -2.48694 0.114175
-1.20904 -1.70036 4.08973
2.19302 -2.29386 3.98878
-0.249572 -2.33066 0.114916
-3.24135 -2.48221 3.90995
3.45507 -2.23147 0.229785
-0.412698 -2.29071 0.108755
3.66037 1.09852 2.41217
-0.576747 -2.29961 0.223379
3.65512 1.10055 3.0114
-0.551015 -2.27736 0.105631
-0.206247 -2.51155 0.105074
-0.408214 -2.5004 0.108074
-4.26108 1.29439 0.811332
-0.0391222 4.6599 2.7867
3.22336 -3.09928 1.61405
-2.20711 2.09967 4.09281
3.55099 0.898567 1.61213
-0.578973 -2.49991 0.235476
0.588921 -3.34226 1.81361
-0.392003 -2.68331 0.109788
-0.447856 -2.73229 0.115392
-0.00573841 2.09659 4.0856
0.386121 -3.34068 1.01518
0.988431 0.493886 0.361978
3.44747 -1.31725 0.21358
1.38813 -1.30104 4.08022
0.599671 1.07606 0.413004
3.63624 -2.9003 3.41271
0.18759 -3.34094 1.01304
0.387666 -3.34011 0.813742
0.592369 3.69705 4.07952
0.189895 -3.3406 0.813693
2.6717 4.79735 1.96495
-0.00930346 -3.34031 0.813859
-4.18793 2.93097 0.349293
-1.01293 3.89668 4.09904
1.03202 4.74919 2.01066
-3.19715 2.70325 0.013563
0.188488 -3.33954 0.21034
-0.424112 1.49759 3.53792
-3.37491 -2.14326 0.00844
-0.144329 -3.33676 0.087
-3.25238 -3.09689 1.92337
-3.59097 2.90871 0.023346
-0.937958 1.3288 0.415385
2.95687 -3.3132 0.815166
-3.81534 4.07566 1.18624
-0.212018 -3.33858 1.01414
-3.18122 -3.14888 3.84029
-0.27375 -2.94409 0.115267
-0.643437 -2.9061 0.603936
-0.573341 -2.90883 0.22964
-0.235389 -3.33564 0.405796
-3.25574 -3.1 1.6145
-0.207099 -0.703315 4.09373
-0.310115 2.88283 4.0178
3.32237 2.30768 0.628964
-0.600341 -3.1 0.414831
3.2154 -2.50176 0.613404
3.2914 2.3708 0.5116
-0.56724 -3.10564 0.209942
-2.61438 0.0999713 0.418868
1.20165 -1.91656 -9.73913e-05
-3.40544 2.50113 0.0119957
3.6774 3.74547 2.61382
1.38869 -2.29808 -0.00179442
-0.409025 -1.30333 0.0708971
3.46417 -2.16356 1.24962
3.53853 -1.7014 3.99711
-0.408096 4.91548 0.409031
0.176807 -1.92521 -0.00164438
-2.0057 -1.33403 0.00632983
-4.3106 -1.71537 2.0099
-3.438 2.299 4.08929
-4.34611 2.0978 1.81225
-0.644926 1.65471 0.913423
-0.0106325 3.32327 0.00395175
0.592052 -2.69807 -0.0022959
3.53357 2.6979 2.61649
0.590811 -2.8992 -0.00230693
2.79124 -0.0648304 0.61436
0.792876 -3.31694 0.0297722
3.45795 -2.12205 2.81264
0.592206 -3.3165 0.0323172
3.38661 1.30039 4.06019
-3.98874 3.28302 0.222632
-2.82979 4.84027 2.81164
3.52317 2.09623 3.22489
0.19249 -2.49737 0.000641791
-3.37976 4.77644 0.816782
-0.0205675 -2.49746 0.033025
0.194124 -2.89648 0.00106722
0.612325 4.87929 3.85028
3.189 4.91331 3.41056
-1.40508 -1.10239 0.00683037
-2.81064 -3.43835 3.01316
-2.61773 -3.01551 0.61497
0.392956 -3.09886 0.000444578
-2.84752 -3.03876 1.22406
1.59204 2.69646 -0.0153375
0.391245 -3.31722 0.0344111
-0.374803 1.49781 3.7783
0.98093 -1.30417 -0.0014635
-2.75091 4.85522 2.01076
-0.407357 -3.3386 2.00933
2.06932 1.49684 3.89727
-0.417722 -3.33883 1.8109
-0.416247 -3.34008 1.61632
0.391717 -1.90302 4.08407
2.18524 -3.31161 0.214057
-0.608753 -3.34478 1.61515
0.98389 -2.70129 4.0714
3.50968 -1.11718 3.40118
2.98863 2.89807 4.06207
-0.607873 -3.34478 1.41333
3.53931 -1.10333 4.00393
-0.416864 -2.9061 0.120491
-3.4657 4.90481 0.385721
0.800653 0.494322 0.00828261
2.98875 2.49625 4.06223
-1.21023 1.09583 0.00233531
-3.40449 -2.96835 0.613353
2.30028 -0.305428 3.89519
-0.812144 3.69589 4.09763
-0.336971 -2.83099 0.111464
-0.00849702 0.296608 -0.00436706
-0.629316 -3.32952 1.0014
3.48576 3.16875 2.79845
-2.99955 -0.309639 1.12402
-0.00343147 2.10204 0.848754
-0.65114 -3.29105 0.804969
-0.611362 -3.289 0.615716
-3.40736 -2.96251 0.403265
-0.556219 -3.28062 0.215781
-3.40356 -2.96489 0.81542
-0.372292 0.699446 3.77803
1.99239 4.70564 0.810921
-0.37686 0.497362 3.77722
-0.622228 0.497229 3.76916
3.49334 -1.8464 0.396364
1.18908 -1.70171 4.07701
3.38582 -3.46566 3.21105
-1.01701 0.696576 4.08484
-1.21059 0.695214 4.08392
-1.01637 0.495065 4.08489
0.392017 0.897776 4.07359
-1.60469 -3.30913 4.09535
1.5901 -3.34818 1.81146
1.3969 5.1159 3.3304
-0.801019 0.0979444 4.08678
0.591321 -2.29714 -0.00289609
-4.33479 4.10041 1.81314
2.38238 -1.30104 -0.017998
-4.33299 4.03997 0.802434
-0.80118 -0.301012 4.08768
-3.80517 2.49913 0.0164809
-0.576344 0.297801 3.53719
-0.426798 0.0975083 3.54065
-0.582843 0.0964995 3.50413
3.4607 -2.11997 3.01224
-1.4127 0.294782 4.08604
-3.30133 1.81759 1.12283
-2.79784 -2.97876 0.895129
-3.22445 0.293546 4.01357
-4.33298 3.89851 2.41342
-1.01843 -0.102088 4.09146
-2.20728 -3.09955 4.09762
-3.25384 -3.09508 1.20194
-1.21284 0.0971175 4.08931
-0.377403 -0.10396 3.77486
-1.21404 -0.101803 4.0913
-1.41233 0.495021 4.08469
3.50509 -1.51812 0.211948
-1.61136 0.494444 4.08513
-2.00256 0.695895 4.06605
-1.20426 -0.499387 0.00598241
0.397674 -3.29812 4.08662
3.21084 -3.4588 0.211104
2.59098 4.69518 4.07006
-0.00501966 -3.32756 0.416574
-3.80699 -3.36779 3.62198
3.61441 4.89398 2.61274
-2.20773 0.694392 4.08905
1.01693 1.90658 0.0123377
-2.3974 -3.43042 0.81707
3.48394 -0.559468 3.38748
3.53392 3.10781 1.21078
-2.20652 0.494644 4.08853
-0.71279 -2.29441 0.900847
2.40102 4.87463 4.02146
-2.40713 0.494906 4.09047
2.51544 4.91185 0.813989
-1.61213 0.293364 4.08593
-4.35457 -0.903992 3.55316
-1.61552 0.0927907 4.08952
-4.36159 0.0983645 2.21375
-4.32024 -1.90427 0.06255
3.44156 -1.69581 0.213263
-2.4043 0.0954273 4.09213
-0.74565 -0.29105 3.82915
-0.580288 0.497764 3.50493
-1.5845 4.90618 1.21496
-4.23091 2.85874 0.0320643
3.51237 2.88702 2.01474
-0.621545 -0.503136 3.76621
-0.7608 -0.6348 3.8465
3.64993 0.0996673 2.61084
-4.33563 3.89946 2.01342
3.40525 -1.70337 0.0157845
-0.801458 -0.699777 4.08685
-4.33596 3.89991 1.81379
-0.578067 0.496633 3.53571
-1.57705 4.92728 1.41228
0.197698 -2.50493 4.08324
2.78832 -1.09677 1.81231
3.52251 2.90049 0.872184
-0.571419 -0.499909 3.50395
3.47561 -1.90905 2.41556
-1.01698 -0.301056 4.09212
-1.21289 -0.300519 4.09241
-1.01835 -0.500082 4.09167
-4.34732 1.90286 2.41223
-3.80818 -1.70182 4.10291
-2.60803 -3.29969 4.10349
-0.627265 -0.900599 3.76691
-0.800145 -0.899187 4.08415
3.64726 0.099702 3.41093
-4.33038 3.89759 2.81255
-0.80121 -1.09931 4.08159
-4.36799 -0.904099 2.212
-1.78602 4.329 0.0154543
0.390195 0.697446 4.07534
3.54262 0.701522 1.81223
-0.592103 -1.10321 3.50379
0.198658 2.69735 4.08882
2.80072 1.67458 4.06376
3.54822 0.895604 0.81196
-3.62991 4.69802 0.635682
-0.579323 -1.10191 3.54724
-4.33913 1.09746 1.21194
-3.58763 4.03388 0.390853
-2.80809 -3.08717 0.0274254
-1.01797 -0.699926 4.09015
-4.2077 3.99585 1.19305
-4.20624 4.96096 3.2142
-1.21096 -0.69953 4.08938
2.32517 4.78725 0.999511
-1.41182 -0.699546 4.08992
2.18715 -3.31165 0.813482
-1.21047 -0.899852 4.08842
3.56467 3.32874 2.6132
-3.8091 1.89866 4.10273
-1.41054 -0.899439 4.08919
0.568153 4.85911 1.41237
-1.40997 -1.09949 4.08939
-0.206185 4.93913 2.01377
-2.81354 -3.42671 0.613203
3.18832 4.29669 4.06301
-2.40803 1.29743 4.09011
-2.00783 0.900186 4.0869
-2.39837 -2.89424 0.0197696
-3.9195 -0.832 0.011
1.98529 -3.09944 -0.00872684
-1.81047 0.699518 0.0062873
-1.81929 -0.284363 4.09259
2.58957 -0.122612 0.213714
3.54626 0.699742 1.6132
-2.20055 -0.297971 4.09211
-2.40293 -0.101928 4.09245
-2.60766 3.29348 0.0116157
-2.00578 -0.494191 4.09259
2.0559 -3.05407 3.88307
-0.926442 1.35929 0.804129
2.98587 -3.35042 2.01246
3.18994 -3.10238 0.043885
2.41562 4.09491 4.05888
-2.40356 -0.300247 4.09299
-4.36269 -0.699909 3.0114
-4.00658 1.09868 4.09922
-3.83297 -0.144513 0.960303
-1.81037 -0.696258 4.09224
-4.31929 -2.30022 2.01347
-4.00782 -2.7806 2.15904
-2.40503 -1.10098 0.00690761
-4.36013 0.295016 2.41245
-1.80903 -0.898189 4.0919
-2.40617 -0.699407 4.09599
-4.31455 -1.70064 0.623244
-2.20729 -0.898491 4.09418
-3.02733 0.696552 4.05059
-4.31981 -2.29468 1.81309
1.99074 4.64227 0.613523
-0.427492 0.498649 3.53942
-2.80631 0.296307 4.09332
3.48867 3.21203 3.1475
-4.34304 2.68396 0.642218
-0.79656 1.10041 0.823458
3.5546 -0.737488 2.41542
-0.589882 -0.902112 3.50384
-0.578447 0.896342 3.53512
-1.21246 -0.49978 4.0912
-1.97967 4.8171 3.01379
-3.15468 0.297804 3.90933
0.791639 4.49592 4.08557
3.57113 0.10178 3.58308
-4.33125 3.89758 2.61256
-3.15332 0.0965681 3.90956
-4.33165 3.29894 3.41262
-0.321502 1.09318 4.01017
-4.00411 0.898609 4.09923
-4.36742 -0.903399 2.61394
-0.427435 0.298685 3.5398
-4.32745 0.914869 3.75073
-1.26892 4.6228 0.239295
-4.3291 0.685375 3.75242
-0.324196 0.700078 4.01398
-4.00629 0.0980743 4.09762
-4.00593 0.497104 4.0977
-4.23278 0.0980665 4.0471
-0.736376 1.80824 0.817845
3.38901 4.09613 4.06027
-4.32975 0.303202 3.75356
-4.26637 0.0974108 3.81981
-0.422136 0.69971 3.50397
1.97644 3.48175 4.05752
-4.3386 0.891285 1.4089
-1.00702 -1.10286 0.00579094
1.99197 4.53745 0.215536
-0.375789 1.09683 3.77946
1.99559 4.49764 0.0540938
-0.426724 1.09926 3.53643
-4.28058 0.0978719 3.62734
2.60265 1.50218 4.06497
-1.22162 -3.4368 1.02558
-4.35423 0.293037 3.41267
-0.974498 -3.34621 1.2133
2.4147 -1.08533 0.21266
-4.34915 1.09705 3.01248
0.697141 0.806826 0.237052
-3.61193 0.0986803 4.09685
-0.894442 1.23264 0.425357
-4.34916 0.898408 3.21286
3.53755 -1.51595 1.81159
-0.898717 1.22274 0.235834
-3.02434 0.0981931 4.05727
-4.35057 0.898508 3.01251
-0.90192 1.21206 0.08628
-4.35249 0.899248 2.81192
-4.35275 0.699351 3.01285
-0.419768 -1.10155 0.00307876
-4.3544 0.898932 2.6112
-4.35583 0.899336 2.41163
1.97888 3.89249 4.05835
-1.40756 4.9421 3.41254
-4.3535 0.495177 3.21072
-2.58712 4.81983 0.909711
-4.0138 4.3753 0.7515
-1.41122 0.695467 4.0844
-1.40967 4.95427 3.85204
-4.35591 0.495858 2.8128
3.22011 -2.29999 2.0121
-0.260267 -3.38627 3.75883
-4.35772 0.0999351 2.61162
-2.85352 -0.750125 0.2462
-4.33538 4.2942 1.27144
-3.02379 -0.101473 4.05828
0.927864 1.06237 0.216922
-3.40932 -0.100482 4.06358
-3.21393 -2.29964 3.90986
3.46349 -2.11734 3.20877
-3.02452 -0.300798 4.05873
2.64782 -3.2577 3.46599
0.556737 4.90224 0.400035
3.45762 -1.48723 2.41622
-2.60647 -0.699692 4.09688
3.22297 -2.49885 1.17677
-3.02384 -0.701678 4.06096
2.58654 -2.50104 -0.0137561
-2.80562 -0.899072 4.09816
-0.210573 -1.09806 0.000755346
-4.35175 1.49996 2.41241
-0.806108 4.90321 0.0409949
-2.96432 0.52823 0.47343
-4.00998 4.89024 4.11392
-3.39295 -0.700707 4.04879
-3.20692 -0.705612 4.00796
-3.17884 -0.70467 3.90975
-1.20777 -0.102767 0.00552372
-2.42412 -3.01818 0.621468
-3.9638 -0.4315 0.96625
1.01601 1.68066 0.84742
-1.20517 -0.301974 0.00561483
-1.00084 -1.28448 0.0226675
-1.01288 4.94083 3.8449
-4.28691 -1.69716 0.997257
-1.81003 1.69891 0.00539053
3.73287 2.04641 2.80595
-4.00744 -0.102945 4.09848
-0.424496 -3.44984 2.63401
-3.61078 -0.30134 4.09706
-1.81055 1.49735 0.00550748
-4.26838 -0.100202 3.81767
3.63316 -3.30507 3.01151
2.18826 -3.35273 2.01284
0.386117 4.91154 0.842957
3.62742 -2.31398 3.21011
-4.33641 -0.303037 3.75395
-2.97374 -3.42292 0.4226
-3.5562 4.46754 0.441433
-4.28178 -0.100852 3.62582
0.595974 -3.29466 4.08578
-4.35249 -0.0960793 3.55366
0.789083 -3.32942 0.812777
-1.961 -3.3859 0.617052
3.46235 -2.10161 3.60811
-3.16396 -0.297123 3.90885
1.06808 0.754104 0.0424044
-4.35523 -0.0954195 3.41127
0.592806 4.0985 -0.000268981
-3.20174 -2.29945 4.01432
3.51808 0.684828 0.596361
